ply
format ascii 1.0
comment Created by Open3D
element vertex 805
property double x
property double y
property double z
property double nx
property double ny
property double nz
end_header
-0.0172672 -0.158838 -0.0230986 0.0198249 -0.177324 -0.983953
-0.0215306 -0.154777 -0.0356345 0.0271729 -0.100793 -0.994536
-0.0252942 -0.151331 -0.0478642 0.0639149 -0.167898 -0.98373
-0.223711 0.0973438 0.282703 -0.576082 -0.0774447 -0.813715
-0.228388 0.099417 0.272767 -0.981868 0.028639 -0.187391
-0.230535 0.0992907 0.266764 -0.998057 0.0301993 -0.0544949
-0.229809 0.0978512 0.260463 -0.99701 0.0360857 0.0683303
-0.229683 0.0966568 0.253755 -0.995718 0.0461415 0.0801091
-0.22767 0.0941484 0.246687 -0.996609 0.0487621 0.0662711
-0.227 0.092473 0.238469 -0.99543 0.0639114 0.0709522
-0.226818 0.0913105 0.230108 -0.997674 0.049561 -0.0468011
-0.225722 0.0891742 0.223075 -0.95778 0.0418788 -0.284436
-0.223196 0.0863 0.216635 -0.873177 -0.0169692 -0.487108
-0.219659 0.0822191 0.21335 -0.837798 -0.0595531 -0.542722
-0.216788 0.078985 0.209281 -0.830583 -0.0705774 -0.552404
-0.2136 0.0751897 0.206474 -0.828735 -0.0552977 -0.556903
-0.210858 0.0721999 0.201232 -0.854314 -0.0416194 -0.518088
-0.207184 0.0672057 0.201543 -0.879152 -0.00601366 -0.476504
-0.204031 0.0630185 0.200397 -0.886446 -0.00124554 -0.462831
-0.201571 0.0590697 0.200796 -0.915964 0.030901 -0.400068
-0.19876 0.0557836 0.197321 -0.931336 0.0275551 -0.363117
-0.199574 0.0542869 0.194764 -0.933833 0.0112785 -0.357531
-0.199953 0.0526067 0.190995 -0.941286 0.0269364 -0.336535
-0.200676 0.051013 0.187808 -0.947505 0.0419866 -0.316972
-0.200119 0.0494294 0.181662 -0.958087 0.0510075 -0.281899
-0.202505 0.04972 0.176249 -0.969188 0.0364997 -0.243603
-0.202193 0.0480111 0.171977 -0.973489 0.0444647 -0.224371
-0.202207 0.0463374 0.169749 -0.97867 0.0486008 -0.199609
-0.200975 0.0441669 0.165576 -0.979637 0.0417004 -0.196401
-0.200026 0.0416075 0.16547 -0.981632 0.0292573 -0.18853
-0.197885 0.0384804 0.163588 -0.980911 0.0478171 -0.188486
-0.195906 0.0357216 0.162066 -0.979596 0.0631289 -0.190805
-0.193899 0.0333219 0.156826 -0.97906 0.0498682 -0.197372
-0.192353 0.0310394 0.153273 -0.975838 0.050041 -0.212687
-0.189845 0.028377 0.148644 -0.965408 0.0588565 -0.254013
-0.187047 0.0252204 0.146366 -0.961828 0.0585534 -0.267316
-0.183309 0.0213154 0.143518 -0.953049 0.0693209 -0.294775
-0.179577 0.0175699 0.140194 -0.945033 0.0651761 -0.320412
-0.17683 0.0149254 0.134081 -0.939185 0.0585423 -0.338385
-0.176264 0.0142545 0.126156 -0.931333 0.0614216 -0.358953
-0.175601 0.01347 0.118137 -0.94336 0.0442988 -0.328799
-0.175734 0.0135702 0.108928 -0.957951 0.041958 -0.283848
-0.172982 0.011122 0.101584 -0.971764 0.0355277 -0.233266
-0.16961 0.00725535 0.0963278 -0.97803 0.0425477 -0.204076
-0.165944 0.00313893 0.0919591 -0.981335 0.0381759 -0.188478
-0.164423 0.000695437 0.0861517 -0.987167 0.0307318 -0.156704
-0.164841 0.000310928 0.0783374 -0.989154 0.00940296 -0.146581
-0.165291 -0.000176989 0.0704906 -0.986987 -0.00346221 -0.160761
-0.165335 -0.00153318 0.0536999 -0.973336 -0.0368312 -0.226409
-0.164869 -0.00277973 0.0462647 -0.962302 -0.0483135 -0.267659
-0.163203 -0.0055007 0.0404041 -0.94225 -0.0665325 -0.328234
-0.163439 -0.00631045 0.0325828 -0.922337 -0.0814088 -0.377714
-0.166858 -0.00465786 0.021735 -0.888198 -0.0812644 -0.452217
-0.166422 -0.00612959 0.0141951 -0.851066 -0.0696345 -0.520421
-0.164808 -0.00835494 0.00732422 -0.804844 -0.020447 -0.593135
-0.160258 -0.0131381 0.0026384 -0.753562 0.00687607 -0.657341
-0.154542 -0.0187688 -0.00138533 -0.641677 -0.013466 -0.766857
-0.148118 -0.0249671 -0.00485268 -0.570165 -0.0114003 -0.821451
-0.141766 -0.030941 -0.00857589 -0.502406 0.0533741 -0.862983
-0.134861 -0.0376016 -0.0116264 -0.448275 0.0601196 -0.891872
-0.128063 -0.043832 -0.0152146 -0.342518 0.0730434 -0.936667
-0.120608 -0.0507832 -0.0178608 -0.259242 0.026656 -0.965445
-0.114404 -0.0564255 -0.0218557 -0.103301 0.0125057 -0.994572
-0.109233 -0.0613739 -0.0264649 -0.0533073 -0.0204575 -0.998369
-0.0996091 -0.0705449 -0.0267351 0.0195363 0.000428713 -0.999809
-0.0895428 -0.080237 -0.0264503 -0.0383795 0.0287688 -0.998849
-0.0789231 -0.090403 -0.0255574 -0.00831014 0.0247311 -0.99966
-0.0706477 -0.0983144 -0.026925 -0.0347983 0.0146618 -0.999287
-0.0576394 -0.110506 -0.0232788 -0.0543751 0.0771786 -0.995533
-0.0468069 -0.120702 -0.0219985 -0.0569341 0.0831314 -0.994911
-0.0327722 -0.133824 -0.0171258 -0.0323839 0.108617 -0.993556
-0.0239827 -0.142127 -0.0178021 -0.0363082 0.0866215 -0.995579
-0.015285 -0.150178 -0.0182081 -0.00269318 -0.0284998 -0.99959
-0.0107819 -0.154468 -0.0223972 0.0326892 -0.120029 -0.992232
-0.0129396 -0.152411 -0.0326387 0.00809462 -0.0818036 -0.996616
-0.0163571 -0.149242 -0.0444608 0.0177269 -0.153802 -0.987943
-0.223484 0.106111 0.280676 -0.557909 -0.105513 -0.823168
-0.227238 0.107664 0.27106 -0.95572 0.0040065 -0.29425
-0.228158 0.106897 0.265385 -0.997734 0.0464819 -0.0486441
-0.227476 0.10551 0.259029 -0.994059 0.0665053 0.0861583
-0.227584 0.104524 0.252058 -0.992463 0.0818011 0.0912454
-0.225474 0.101905 0.245067 -0.991398 0.117716 0.0572171
-0.224669 0.100045 0.237119 -0.991107 0.119336 0.0588778
-0.224578 0.0988848 0.228916 -0.991561 0.102369 -0.0795455
-0.223606 0.0968319 0.222016 -0.955317 0.0931661 -0.280517
-0.221063 0.0940253 0.215577 -0.874582 0.013428 -0.484692
-0.217976 0.090284 0.212105 -0.8463 -0.0376494 -0.531374
-0.215331 0.0871915 0.207988 -0.811189 -0.026076 -0.584202
-0.212444 0.083588 0.205032 -0.818174 -0.0178074 -0.574694
-0.209628 0.080452 0.199925 -0.833786 0.00428691 -0.552071
-0.206307 0.0756694 0.20003 -0.86806 0.0152377 -0.496226
-0.203529 0.0717615 0.198644 -0.880734 0.0428032 -0.471673
-0.201191 0.0679287 0.198968 -0.898151 0.0168355 -0.439365
-0.198483 0.0648454 0.195299 -0.912422 0.0499137 -0.406196
-0.199651 0.0636428 0.19265 -0.918103 0.0452485 -0.393751
-0.200106 0.062032 0.188949 -0.935578 0.05702 -0.348486
-0.200871 0.060503 0.185834 -0.942756 0.0545076 -0.328998
-0.200449 0.0590388 0.179647 -0.957308 0.0583797 -0.283113
-0.201485 0.0582518 0.175675 -0.967437 0.0649654 -0.244631
-0.200692 0.0562436 0.171842 -0.969747 0.0637347 -0.235645
-0.200464 0.0545226 0.169847 -0.972714 0.0580611 -0.224623
-0.199173 0.0523225 0.165771 -0.974547 0.0495661 -0.218633
-0.197975 0.049537 0.165912 -0.975059 0.0639063 -0.212547
-0.195664 0.0465687 0.163648 -0.977185 0.0475209 -0.207005
-0.193971 0.0440753 0.161563 -0.981359 0.0489571 -0.185845
-0.191971 0.0416508 0.155883 -0.977573 0.0501447 -0.204542
-0.190424 0.0397219 0.151729 -0.97494 0.0565367 -0.215163
-0.187963 0.0370964 0.147064 -0.968857 0.0522986 -0.242036
-0.184408 0.0332568 0.145347 -0.96041 0.0576983 -0.272552
-0.180706 0.029479 0.141829 -0.95318 0.0503135 -0.298187
-0.177465 0.0262519 0.137522 -0.942279 0.0596993 -0.329464
-0.175369 0.0241923 0.130749 -0.940386 0.0459392 -0.336994
-0.175469 0.02411 0.122242 -0.937995 0.0378773 -0.344573
-0.174848 0.0233447 0.11426 -0.949886 0.0419207 -0.309774
-0.172986 0.021433 0.106928 -0.962324 0.035522 -0.269575
-0.169316 0.0178233 0.100964 -0.971242 0.0463358 -0.233541
-0.166023 0.0139575 0.0958579 -0.98011 0.0384366 -0.194698
-0.162501 0.00995925 0.0914296 -0.984594 0.0402857 -0.170149
-0.163669 0.0101485 0.0829286 -0.99006 0.0332704 -0.136651
-0.165077 0.0108313 0.0739508 -0.991419 0.0203629 -0.129126
-0.166605 0.0114625 0.064728 -0.988948 0.000474509 -0.148265
-0.166732 0.0111484 0.0558026 -0.983614 -0.00850261 -0.180088
-0.166836 0.0103417 0.0473073 -0.971494 -0.0385186 -0.233914
-0.165298 0.00797033 0.0408848 -0.958851 -0.0407176 -0.280976
-0.163609 0.00516851 0.0349985 -0.923454 -0.0568432 -0.379474
-0.163646 0.00412664 0.0274126 -0.882299 -0.0665512 -0.465962
-0.165527 0.00434862 0.0181748 -0.849874 -0.0488137 -0.524721
-0.163373 0.00136115 0.0121986 -0.7811 -0.0356536 -0.623387
-0.16112 -0.00147288 0.00587687 -0.731412 -0.0554018 -0.679682
-0.156045 -0.00664483 0.00148973 -0.648862 -0.0629389 -0.758299
-0.149969 -0.0126413 -0.00218102 -0.567244 -0.0173907 -0.823366
-0.143189 -0.0191978 -0.00529584 -0.488236 -0.0189997 -0.872505
-0.136451 -0.0255479 -0.00864089 -0.4703 0.0166657 -0.882349
-0.12925 -0.032475 -0.0113818 -0.393844 0.0511983 -0.91775
-0.12241 -0.0386986 -0.0148637 -0.282462 0.0932995 -0.954731
-0.115015 -0.0455576 -0.0175877 -0.153309 0.10411 -0.982679
-0.108252 -0.0516941 -0.021065 -0.0465141 0.0250211 -0.998604
-0.10219 -0.0574752 -0.0248344 0.0165303 0.00469343 -0.999852
-0.0926836 -0.0665115 -0.025181 -0.00962868 0.0280567 -0.99956
-0.0826894 -0.0761281 -0.0249766 -0.02784 0.0205181 -0.999402
-0.0722814 -0.0860895 -0.024305 -0.0356213 0.0167213 -0.999225
-0.0646422 -0.0934236 -0.0263824 -0.0672847 0.00518914 -0.99772
-0.0529889 -0.104393 -0.0242662 -0.036156 0.0509812 -0.998045
-0.0421551 -0.114608 -0.022996 -0.0288293 0.0850818 -0.995957
-0.0279158 -0.12794 -0.0179085 -0.0339534 0.114391 -0.992855
-0.0185522 -0.136772 -0.0180326 -0.0416608 0.083671 -0.995622
-0.00922263 -0.145449 -0.0177815 -0.0250188 0.0288109 -0.999272
-0.00360209 -0.150715 -0.0210833 0.0114581 -0.0812971 -0.996624
-0.00416374 -0.150181 -0.0295891 0.0130393 -0.1128 -0.993532
-0.00725234 -0.14727 -0.0410562 0.0160191 -0.150627 -0.988461
-0.0127372 -0.1418 -0.055602 0.0358946 -0.222862 -0.974189
-0.223506 0.11465 0.279785 -0.508699 -0.145864 -0.848498
-0.226144 0.115621 0.270421 -0.828306 -0.0719966 -0.555631
-0.226031 0.114433 0.264634 -0.976803 -0.00501245 -0.214082
-0.225387 0.113116 0.258035 -0.995745 0.0696212 -0.0603706
-0.225661 0.11229 0.250681 -0.993808 0.109595 -0.0182862
-0.22409 0.110144 0.243218 -0.991502 0.130025 0.00416728
-0.223411 0.108338 0.235366 -0.982796 0.183781 0.0183523
-0.223111 0.107004 0.227477 -0.955288 0.258694 -0.14319
-0.222183 0.105089 0.220679 -0.925187 0.194495 -0.325884
-0.219838 0.102444 0.214231 -0.856851 0.128728 -0.499235
-0.217441 0.0992564 0.210408 -0.827455 0.081592 -0.555573
-0.215232 0.0964976 0.206041 -0.803993 0.0494308 -0.59258
-0.212782 0.0932292 0.202718 -0.793494 0.0322198 -0.607724
-0.209349 0.0893557 0.198267 -0.824785 0.0400351 -0.564027
-0.206781 0.0851523 0.197791 -0.837326 0.0242372 -0.546167
-0.204579 0.0816669 0.196044 -0.860476 0.0536154 -0.506662
-0.202743 0.0783603 0.195932 -0.870025 0.0395464 -0.491419
-0.200473 0.0755366 0.192416 -0.897426 0.0434945 -0.439015
-0.202176 0.0747655 0.189783 -0.902323 0.0437951 -0.428829
-0.202794 0.0733482 0.186143 -0.919054 0.0366083 -0.392427
-0.203455 0.0718091 0.183315 -0.938 0.0324326 -0.345115
-0.202499 0.0700151 0.177442 -0.951595 0.0584512 -0.301744
-0.202119 0.0680768 0.17512 -0.95842 0.0767323 -0.27485
-0.200978 0.0658457 0.17186 -0.967183 0.0661996 -0.245304
-0.200368 0.0638656 0.170524 -0.971808 0.0653511 -0.226534
-0.198817 0.0614369 0.1668 -0.974563 0.0673684 -0.213749
-0.197288 0.0587305 0.166494 -0.976203 0.0534783 -0.210161
-0.195061 0.0558826 0.16367 -0.97777 0.0650449 -0.199336
-0.193546 0.0538032 0.160049 -0.982029 0.0624021 -0.178114
-0.191488 0.0515249 0.154073 -0.980464 0.0592135 -0.187573
-0.189961 0.0496897 0.149511 -0.975258 0.0490821 -0.215554
-0.18743 0.0470357 0.144637 -0.96788 0.0333744 -0.249187
-0.183066 0.0425508 0.142819 -0.960308 0.0487394 -0.27465
-0.179668 0.0391687 0.138195 -0.952486 0.0462189 -0.301056
-0.177422 0.0368855 0.132588 -0.943548 0.0377606 -0.329076
-0.176142 0.0355685 0.124841 -0.943136 0.0353093 -0.330527
-0.176902 0.036071 0.115739 -0.951382 0.0188022 -0.30744
-0.175961 0.0350075 0.107984 -0.959662 0.0246997 -0.28007
-0.172392 0.0312979 0.102344 -0.966312 0.0230129 -0.256341
-0.167762 0.0265153 0.0977203 -0.977582 0.0311651 -0.208234
-0.164669 0.022846 0.0924228 -0.985908 0.0289539 -0.164761
-0.162537 0.0202773 0.08651 -0.990346 0.0321619 -0.134838
-0.16485 0.021642 0.0767516 -0.99299 0.0311116 -0.11403
-0.166374 0.0224376 0.067619 -0.992662 0.00771898 -0.120676
-0.168508 0.0236968 0.0575622 -0.98889 0.0115278 -0.148205
-0.169464 0.0242365 0.0476886 -0.979769 0.00545422 -0.200058
-0.16886 0.022652 0.0398111 -0.967385 0.00993992 -0.253117
-0.166825 0.0197674 0.033768 -0.939585 -0.0132496 -0.34206
-0.165515 0.0172531 0.027463 -0.902409 -0.0270581 -0.430031
-0.164994 0.0156613 0.0204833 -0.851135 -0.0308616 -0.524038
-0.163651 0.0129132 0.0151227 -0.802286 -0.0470189 -0.595086
-0.160747 0.00918907 0.00985783 -0.740367 -0.0349526 -0.671293
-0.157887 0.00576621 0.00405866 -0.659616 -0.06555 -0.748739
-0.15242 0.000304967 -0.000115514 -0.57336 -0.05592 -0.817393
-0.146136 -0.00590336 -0.00360057 -0.512853 -0.053272 -0.856822
-0.138988 -0.0128284 -0.00635108 -0.453992 -0.0311858 -0.89046
-0.132109 -0.0193081 -0.00958464 -0.436102 -0.0243627 -0.899567
-0.124529 -0.0265818 -0.0119519 -0.330562 0.0493834 -0.942492
-0.117525 -0.0329179 -0.0153129 -0.22747 0.0482533 -0.972589
-0.108598 -0.0411877 -0.0165947 -0.0734658 0.0182964 -0.99713
-0.101108 -0.0479776 -0.0194108 -0.0402606 0.0247262 -0.998883
-0.0948614 -0.053934 -0.0230044 -0.03091 0.0474055 -0.998397
-0.0853647 -0.0629471 -0.0233674 -0.00632029 0.0704622 -0.997494
-0.0755749 -0.0723422 -0.0232874 -0.00856884 0.040944 -0.999125
-0.0654786 -0.0819881 -0.0228651 -0.0278175 0.0209821 -0.999393
-0.0579916 -0.0891843 -0.0251079 -0.00737078 0.0397652 -0.999182
-0.0476205 -0.0990054 -0.0244592 0.000218875 0.0646558 -0.997908
-0.0378663 -0.108257 -0.0244156 0.0182078 0.123013 -0.992238
-0.0241321 -0.121148 -0.0198811 -0.0553202 0.13358 -0.989493
-0.0146849 -0.130066 -0.0199087 -0.0478823 0.102758 -0.993553
-0.00426137 -0.139774 -0.0185538 -0.0241731 0.0519057 -0.998359
0.00250334 -0.146064 -0.0209115 0.0159573 -0.0366381 -0.999201
0.00485879 -0.148324 -0.026355 0.0314248 -0.122769 -0.991938
0.00254571 -0.146011 -0.0371535 0.0120046 -0.130084 -0.99143
-0.00269949 -0.140737 -0.0512253 0.0432517 -0.23814 -0.970267
-0.220125 0.121194 0.280629 -0.475184 -0.179789 -0.861322
-0.222321 0.121938 0.271322 -0.6207 -0.153782 -0.768819
-0.222317 0.120863 0.265175 -0.883015 -0.0708975 -0.463959
-0.221765 0.119651 0.258321 -0.949981 -0.0120813 -0.312073
-0.222067 0.118868 0.250774 -0.983361 0.103255 -0.149463
-0.220442 0.116679 0.243313 -0.983647 0.123045 -0.131527
-0.220358 0.115377 0.235093 -0.970271 0.218937 -0.103158
-0.219861 0.113937 0.227362 -0.91423 0.346104 -0.210703
-0.219196 0.112218 0.22054 -0.877973 0.37729 -0.294646
-0.216962 0.109665 0.214069 -0.816275 0.252097 -0.519751
-0.214899 0.106742 0.210081 -0.791186 0.242498 -0.561444
-0.212932 0.104176 0.205575 -0.775774 0.147229 -0.613594
-0.210767 0.101127 0.20204 -0.774984 0.117251 -0.621009
-0.207391 0.0972723 0.197525 -0.799302 0.127427 -0.587264
-0.205214 0.0933516 0.196735 -0.828929 0.114551 -0.547499
-0.203215 0.0900405 0.194782 -0.8535 0.111714 -0.508977
-0.201658 0.0868662 0.194804 -0.873595 0.0651669 -0.482271
-0.199463 0.0839558 0.191746 -0.902514 0.10459 -0.417767
-0.201425 0.0833034 0.189516 -0.888081 0.081853 -0.452341
-0.202234 0.0820383 0.185991 -0.911858 0.0673922 -0.404936
-0.202216 0.0799797 0.184028 -0.924166 0.0680564 -0.375879
-0.200972 0.0779494 0.178504 -0.942568 0.0892158 -0.321878
-0.200218 0.0757391 0.176553 -0.956886 0.0613744 -0.283905
-0.19897 0.073416 0.173389 -0.967582 0.0347272 -0.250156
-0.198202 0.0712923 0.172186 -0.971864 0.0616776 -0.227323
-0.19655 0.0690621 0.168098 -0.971953 0.0727503 -0.223642
-0.194958 0.0665481 0.167142 -0.974528 0.0787515 -0.209985
-0.192998 0.0642109 0.163242 -0.977682 0.0791787 -0.194596
-0.191492 0.062223 0.159117 -0.983333 0.0770672 -0.164673
-0.189637 0.0601691 0.152885 -0.98091 0.0620831 -0.184288
-0.188073 0.0583455 0.148046 -0.977322 0.044192 -0.207096
-0.185469 0.0556777 0.142917 -0.970707 0.053867 -0.234152
-0.180175 0.0504877 0.141207 -0.962274 0.0424525 -0.268751
-0.177421 0.0477166 0.135679 -0.954761 0.0414255 -0.294473
-0.175741 0.045959 0.129454 -0.948334 0.0252317 -0.31627
-0.174666 0.0448289 0.121506 -0.947613 0.00359219 -0.319401
-0.175689 0.0455719 0.112132 -0.958431 0.00727995 -0.285232
-0.173614 0.0434269 0.10524 -0.967895 0.0151692 -0.250898
-0.169699 0.0392664 0.100095 -0.973211 0.0195533 -0.229079
-0.164946 0.034344 0.0956287 -0.981263 0.0143679 -0.192136
-0.161719 0.0305198 0.0904571 -0.986452 0.037361 -0.159742
-0.161139 0.0294913 0.0829481 -0.992789 0.0279862 -0.116566
-0.163645 0.0310307 0.0729828 -0.994083 0.0194646 -0.106867
-0.164971 0.031639 0.0639143 -0.990401 0.0241306 -0.136099
-0.167152 0.0329542 0.0537455 -0.987141 0.00333197 -0.15982
-0.168427 0.033825 0.043433 -0.974797 -0.00454168 -0.223045
-0.167564 0.0319427 0.0358108 -0.947818 -0.0051538 -0.318771
-0.165482 0.0290119 0.0297829 -0.918799 0.0115356 -0.394558
-0.164329 0.0266172 0.0233652 -0.870767 -0.00677383 -0.491649
-0.162751 0.0240525 0.0175835 -0.829633 0.0128979 -0.558159
-0.160875 0.0208264 0.012789 -0.760003 -0.00302438 -0.649912
-0.157533 0.0167403 0.0077908 -0.65818 -0.019326 -0.752613
-0.154147 0.0128659 0.0023776 -0.60923 -0.0460132 -0.791657
-0.148627 0.00735606 -0.00175825 -0.529226 -0.0764489 -0.84503
-0.142139 0.000949465 -0.0050596 -0.460631 -0.0638425 -0.885293
-0.134687 -0.0062644 -0.00752711 -0.409323 -0.0255532 -0.912032
-0.127434 -0.0130972 -0.0104145 -0.389004 -0.0261265 -0.920866
-0.119486 -0.0207166 -0.0124195 -0.273397 -0.000962578 -0.961901
-0.111302 -0.0281672 -0.0146421 -0.168182 0.0238353 -0.985468
-0.10201 -0.0367831 -0.0155685 -0.0508875 -0.00334104 -0.998699
-0.0941077 -0.0439691 -0.0179787 -0.0977982 0.0455841 -0.994162
-0.0876512 -0.0501331 -0.0213581 -0.0135085 0.0750801 -0.997086
-0.0777668 -0.0595779 -0.0212639 0.0294747 0.0646323 -0.997474
-0.0680356 -0.0689081 -0.0212496 0.0227239 0.0923184 -0.99547
-0.0581402 -0.0783494 -0.0210051 0.0591002 0.0793475 -0.995094
-0.0508735 -0.0853269 -0.023403 0.040602 0.0865828 -0.995417
-0.040669 -0.0949972 -0.0229221 0.0642925 0.103274 -0.992573
-0.0309798 -0.10419 -0.0229297 0.0103655 0.115429 -0.993262
-0.0187725 -0.11569 -0.0200996 -0.0358845 0.128287 -0.991088
-0.00942773 -0.124514 -0.0202276 -0.0433812 0.139067 -0.989332
0.00132936 -0.134545 -0.0185426 -0.0364899 0.0632523 -0.99733
0.00844181 -0.141161 -0.0205888 0.00569187 -0.012008 -0.999912
0.0125495 -0.145012 -0.0244437 0.0140949 -0.100205 -0.994867
0.0103092 -0.142758 -0.0351518 0.0271697 -0.124292 -0.991874
0.00521421 -0.137602 -0.04898 0.0167571 -0.156221 -0.98758
-0.218109 0.128469 0.281046 -0.464634 -0.207276 -0.860902
-0.219753 0.128913 0.271795 -0.607424 -0.178398 -0.774087
-0.219973 0.128032 0.265122 -0.732723 -0.153399 -0.663012
-0.219652 0.127055 0.257793 -0.925348 -0.00836434 -0.379026
-0.219946 0.126284 0.249982 -0.966808 0.04354 -0.251765
-0.218232 0.124 0.242599 -0.97894 0.136672 -0.15165
-0.218385 0.122915 0.234446 -0.943072 0.219386 -0.24997
-0.218566 0.122145 0.226375 -0.911169 0.324409 -0.254028
-0.218238 0.120648 0.219781 -0.874309 0.351431 -0.334783
-0.216326 0.11834 0.213305 -0.79677 0.302391 -0.52318
-0.215074 0.116061 0.209069 -0.772521 0.276866 -0.571451
-0.213684 0.113975 0.204303 -0.735988 0.227941 -0.637468
-0.211783 0.111064 0.200708 -0.723896 0.21342 -0.656068
-0.208312 0.107074 0.196217 -0.754596 0.172837 -0.633018
-0.206964 0.103832 0.19486 -0.786411 0.171884 -0.593307
-0.205237 0.100913 0.192479 -0.820043 0.180865 -0.542971
-0.204466 0.0981869 0.192846 -0.826872 0.134096 -0.546169
-0.202644 0.0953847 0.190454 -0.87214 0.116719 -0.475131
-0.203993 0.0941537 0.189826 -0.862983 0.0779919 -0.499177
-0.204098 0.0924119 0.187163 -0.884844 0.093802 -0.456347
-0.203506 0.090011 0.186052 -0.889717 0.0870121 -0.448144
-0.201634 0.087461 0.181233 -0.921035 0.0842019 -0.380269
-0.200618 0.0850707 0.179535 -0.934605 0.0707523 -0.34858
-0.199389 0.0828676 0.176123 -0.955514 0.0743184 -0.285429
-0.198373 0.0809535 0.174192 -0.954757 0.0825634 -0.285697
-0.19646 0.0786327 0.169787 -0.971027 0.0888616 -0.221834
-0.195032 0.0766745 0.167019 -0.973087 0.092125 -0.211222
-0.19327 0.0745511 0.161855 -0.977238 0.0861512 -0.193865
-0.191741 0.0726243 0.157128 -0.981172 0.0784038 -0.176505
-0.189789 0.0705168 0.150749 -0.982764 0.0608952 -0.174547
-0.188191 0.0687417 0.14527 -0.977948 0.0583218 -0.200538
-0.184948 0.065655 0.13966 -0.969976 0.0550497 -0.236889
-0.180058 0.0609241 0.136784 -0.963707 0.0369156 -0.264396
-0.177789 0.0586181 0.130632 -0.957855 0.0198277 -0.286569
-0.176506 0.0572511 0.123865 -0.953211 0.00876826 -0.302178
-0.175844 0.0565015 0.115438 -0.956204 0.00035294 -0.2927
-0.176608 0.0569071 0.106292 -0.961492 -0.0307302 -0.27311
-0.173923 0.0541202 0.0999266 -0.973212 -0.0203621 -0.229004
-0.170486 0.0503761 0.0943078 -0.983341 -0.013669 -0.181257
-0.165665 0.0453565 0.0899122 -0.988547 0.00206198 -0.150898
-0.162521 0.0416265 0.0844774 -0.992124 0.0192665 -0.123766
-0.162961 0.0416003 0.0758494 -0.994327 0.00846097 -0.106031
-0.165932 0.0435676 0.0653367 -0.993223 0.00780269 -0.11596
-0.167129 0.0440367 0.0562849 -0.990149 0.011127 -0.139577
-0.169037 0.0450218 0.0463637 -0.977525 0.0228266 -0.209581
-0.169684 0.0452095 0.0367495 -0.952076 0.0381372 -0.303476
-0.169329 0.0438194 0.0285268 -0.918215 0.0232934 -0.395398
-0.167423 0.041053 0.022279 -0.878407 0.0548549 -0.474754
-0.1652 0.0376552 0.0173947 -0.848086 0.0342665 -0.52875
-0.162929 0.0344576 0.0123471 -0.784657 0.0273059 -0.619329
-0.159972 0.0303106 0.00891927 -0.72712 0.0220138 -0.686157
-0.155957 0.0256395 0.00440001 -0.65685 -0.0127864 -0.753913
-0.15168 0.0210289 -0.00042358 -0.589023 -0.0364531 -0.807294
-0.146083 0.0154454 -0.00449371 -0.502933 -0.0391774 -0.863437
-0.139429 0.00889283 -0.0076741 -0.447835 -0.0440487 -0.893031
-0.131563 0.00128691 -0.00975415 -0.392429 -0.0668179 -0.917352
-0.123963 -0.00586845 -0.0123447 -0.325072 -0.0423959 -0.944739
-0.114892 -0.0145514 -0.0132637 -0.20971 -0.0380995 -0.977021
-0.105117 -0.0235114 -0.0139525 -0.156238 0.0077564 -0.987689
-0.0953169 -0.0326119 -0.0143728 -0.111902 0.0312372 -0.993228
-0.0869982 -0.0401683 -0.0163773 -0.00173835 0.0563815 -0.998408
-0.0801974 -0.0466543 -0.0193796 0.0401396 0.0536058 -0.997755
-0.0700407 -0.0564173 -0.0189006 0.0647257 0.0828697 -0.994456
-0.0605851 -0.0654718 -0.0191737 0.0602973 0.140018 -0.988311
-0.0509889 -0.0746223 -0.019241 0.112931 0.140058 -0.983682
-0.0439895 -0.0813444 -0.0218676 0.0910083 0.111306 -0.98961
-0.0340923 -0.0907402 -0.0216526 0.0584566 0.105455 -0.992704
-0.0244095 -0.0999502 -0.0216797 -0.010637 0.0949075 -0.995429
-0.0134067 -0.11038 -0.0202341 -0.023981 0.114438 -0.993141
-0.00593382 -0.117511 -0.0224757 -0.0276524 0.147963 -0.988606
0.004601 -0.127375 -0.0210752 -0.045284 0.127493 -0.990805
0.012625 -0.134839 -0.0222938 0.0027105 0.0353695 -0.999371
0.0207051 -0.142304 -0.0224865 0.0436927 -0.0906936 -0.99492
0.0203841 -0.141846 -0.0312772 0.0458596 -0.130387 -0.990402
0.0158019 -0.137141 -0.0442984 0.0496934 -0.101716 -0.993572
-0.215335 0.135565 0.280722 -0.44352 -0.259137 -0.857985
-0.216983 0.136002 0.271427 -0.508364 -0.253544 -0.822971
-0.217327 0.135211 0.264507 -0.627377 -0.236989 -0.741778
-0.217146 0.134359 0.256945 -0.774553 -0.138638 -0.617128
-0.21744 0.133576 0.249043 -0.920937 -0.00315008 -0.389699
-0.215647 0.131197 0.241752 -0.920093 0.0300253 -0.390548
-0.215817 0.130149 0.233765 -0.917568 0.112358 -0.381373
-0.216424 0.129682 0.225673 -0.913857 0.256576 -0.314697
-0.216636 0.128587 0.219074 -0.854331 0.385359 -0.348736
-0.214916 0.126412 0.212633 -0.795193 0.297038 -0.528618
-0.21423 0.124583 0.208241 -0.737892 0.252573 -0.625877
-0.213234 0.12283 0.203315 -0.683178 0.282278 -0.673489
-0.211498 0.120003 0.1997 -0.659527 0.202384 -0.723924
-0.208229 0.116207 0.194919 -0.713748 0.198429 -0.671706
-0.207302 0.113506 0.192864 -0.73774 0.178235 -0.651131
-0.206051 0.110961 0.190239 -0.819406 0.214169 -0.531701
-0.205769 0.108462 0.191044 -0.814077 0.189143 -0.549093
-0.204412 0.105877 0.189061 -0.835868 0.184237 -0.517089
-0.204928 0.103739 0.190468 -0.836369 0.176267 -0.519055
-0.20373 0.100945 0.189207 -0.86114 0.16176 -0.481946
-0.202308 0.0979209 0.188982 -0.863378 0.156659 -0.479622
-0.20024 0.0952157 0.184296 -0.898487 0.124215 -0.42106
-0.199311 0.0932392 0.181904 -0.909264 0.123003 -0.39763
-0.198014 0.0912983 0.177971 -0.937569 0.113099 -0.328897
-0.196785 0.0895278 0.175281 -0.945591 0.126624 -0.299706
-0.195108 0.087473 0.170309 -0.959971 0.122247 -0.252016
-0.193939 0.0857755 0.166291 -0.976222 0.114488 -0.184076
-0.192255 0.0837647 0.160706 -0.981001 0.0950101 -0.169142
-0.190762 0.0819416 0.155445 -0.981073 0.0829705 -0.174961
-0.188924 0.0799811 0.148462 -0.979485 0.0944181 -0.178027
-0.186926 0.0779918 0.142249 -0.973909 0.080225 -0.212284
-0.18352 0.0748191 0.136525 -0.968574 0.073472 -0.237628
-0.179092 0.0705405 0.133032 -0.963141 0.0604172 -0.262123
-0.176984 0.0683894 0.126721 -0.957638 0.0408412 -0.285064
-0.175598 0.0669705 0.119982 -0.961501 0.0207747 -0.274013
-0.17499 0.0662677 0.111654 -0.960987 -0.00180108 -0.276588
-0.174912 0.0657673 0.103325 -0.969186 -0.0105951 -0.2461
-0.172327 0.0630493 0.0969554 -0.977765 -0.00814705 -0.209547
-0.169094 0.0594591 0.0912016 -0.985698 -0.0072999 -0.168365
-0.164267 0.054408 0.0868387 -0.990526 -0.00109421 -0.137324
-0.161266 0.0508069 0.0812206 -0.993811 0.0114264 -0.110491
-0.162806 0.0518494 0.0714572 -0.992129 -0.000695284 -0.125219
-0.166105 0.0541247 0.0604975 -0.990607 0.0121741 -0.136196
-0.167286 0.0545727 0.0513577 -0.983733 0.0224498 -0.178231
-0.168578 0.054862 0.0420414 -0.965071 0.0284975 -0.260435
-0.169259 0.0550736 0.0324183 -0.933944 0.0506955 -0.353805
-0.169047 0.0538132 0.024007 -0.887494 0.0603117 -0.456854
-0.165994 0.049991 0.0191444 -0.85121 0.0365775 -0.523549
-0.164005 0.0467766 0.0141982 -0.82131 0.0626648 -0.567029
-0.161299 0.0431793 0.00957024 -0.743271 0.0707445 -0.66524
-0.157786 0.0387004 0.00612035 -0.694491 0.0525459 -0.71758
-0.15327 0.0335943 0.00197428 -0.619603 0.034535 -0.784156
-0.148042 0.0282372 -0.0022586 -0.559325 0.0212227 -0.828676
-0.142384 0.022601 -0.00628066 -0.46715 -0.0167652 -0.884019
-0.135501 0.0158458 -0.00926474 -0.406522 -0.0309185 -0.913118
-0.12725 0.00787862 -0.010981 -0.345377 -0.0631599 -0.936336
-0.11882 -6.52894e-05 -0.0127766 -0.287143 -0.0712702 -0.955233
-0.109072 -0.00939661 -0.0130346 -0.232287 -0.0719909 -0.969979
-0.0987376 -0.0189033 -0.0131617 -0.0967633 0.00926885 -0.995264
-0.0886154 -0.0283134 -0.013261 -0.0515675 0.04628 -0.997597
-0.0799395 -0.0362048 -0.0148866 0.0549235 0.0362615 -0.997832
-0.0722687 -0.0436367 -0.0168377 0.0719236 0.0670549 -0.995154
-0.0621427 -0.0533538 -0.0163566 0.0801132 0.098765 -0.991881
-0.0529547 -0.062146 -0.0169027 0.0896767 0.135957 -0.986648
-0.0437256 -0.070944 -0.0173395 0.0801092 0.154361 -0.984761
-0.0368984 -0.0775086 -0.0201375 0.0665428 0.129807 -0.989304
-0.0272075 -0.0867178 -0.0200547 0.0438056 0.126373 -0.991015
-0.0175048 -0.0959668 -0.0200473 0.00492865 0.107612 -0.994181
-0.00648558 -0.106443 -0.018597 -0.0076832 0.136122 -0.990662
0.00102079 -0.113618 -0.0207993 -0.00835093 0.163912 -0.98644
0.00933522 -0.121514 -0.0219422 -0.0293588 0.166625 -0.985583
0.0183218 -0.129849 -0.0223402 0.0122481 0.0714358 -0.99737
0.0286983 -0.139389 -0.0204928 0.0594384 -0.0551823 -0.996706
0.0301743 -0.140619 -0.0275178 0.0670834 -0.116794 -0.990888
0.0258062 -0.136079 -0.0401451 0.0493342 -0.0563661 -0.997191
0.0224196 -0.132622 -0.0525832 0.0721158 -0.0496428 -0.99616
-0.212847 0.142752 0.280426 -0.437801 -0.264133 -0.859397
-0.214608 0.143269 0.270955 -0.498086 -0.259045 -0.82753
-0.215053 0.142568 0.26371 -0.557713 -0.23966 -0.794682
-0.215022 0.141863 0.25584 -0.704812 -0.18966 -0.683571
-0.215255 0.141028 0.247853 -0.801194 -0.120039 -0.586241
-0.213221 0.138539 0.240635 -0.897953 -0.0282582 -0.439183
-0.213508 0.137573 0.232911 -0.910661 0.0527435 -0.409773
-0.214529 0.137375 0.224943 -0.902166 0.162841 -0.399474
-0.215467 0.136795 0.218436 -0.886866 0.277594 -0.369337
-0.214248 0.135018 0.211913 -0.772534 0.300632 -0.559296
-0.214332 0.133749 0.207439 -0.722985 0.218882 -0.655273
-0.214132 0.132638 0.202107 -0.618583 0.229091 -0.75158
-0.212608 0.129843 0.198573 -0.58909 0.221451 -0.777131
-0.209536 0.126332 0.193326 -0.604151 0.160141 -0.780612
-0.209318 0.124399 0.190646 -0.659272 0.146674 -0.73746
-0.208843 0.12242 0.187918 -0.738649 0.160699 -0.654655
-0.209241 0.120361 0.189292 -0.718793 0.165606 -0.675212
-0.207294 0.117042 0.188849 -0.774465 0.202569 -0.599307
-0.206369 0.113593 0.192809 -0.737874 0.1848 -0.649146
-0.204367 0.110091 0.19292 -0.764872 0.197838 -0.61305
-0.202232 0.106803 0.193175 -0.839683 0.210588 -0.500584
-0.200111 0.104327 0.188016 -0.873671 0.18657 -0.449323
-0.198997 0.102703 0.184501 -0.890922 0.1966 -0.409397
-0.19749 0.100754 0.179895 -0.911289 0.155201 -0.381398
-0.196226 0.0989714 0.176304 -0.940127 0.170533 -0.295092
-0.194762 0.0971112 0.17039 -0.955257 0.155319 -0.251714
-0.19351 0.0954224 0.165417 -0.967215 0.148243 -0.206201
-0.19203 0.0936879 0.158695 -0.971636 0.153626 -0.179784
-0.190984 0.0923793 0.151691 -0.974997 0.139444 -0.173023
-0.188978 0.0902895 0.144662 -0.975177 0.127017 -0.181375
-0.186055 0.0875671 0.138666 -0.969091 0.101968 -0.224644
-0.182758 0.0845094 0.132707 -0.965387 0.0917265 -0.244161
-0.179498 0.0813325 0.127853 -0.965517 0.068451 -0.251182
-0.177269 0.0790689 0.121747 -0.964581 0.045564 -0.259823
-0.175363 0.0772012 0.115446 -0.964167 0.0383573 -0.262509
-0.1741 0.0759477 0.107879 -0.964709 0.0319096 -0.261379
-0.173927 0.0753001 0.0996495 -0.975514 0.011506 -0.219636
-0.17135 0.0725605 0.0933809 -0.983502 0.00347973 -0.180863
-0.168805 0.0695879 0.0869672 -0.988991 0.00694241 -0.147816
-0.164059 0.0645812 0.0825365 -0.99205 -0.0028124 -0.125816
-0.161537 0.0614235 0.0763753 -0.993351 0.00211097 -0.115102
-0.163176 0.0625706 0.0663938 -0.991487 -0.00347068 -0.130159
-0.166734 0.0651092 0.0549504 -0.984545 0.0122296 -0.174705
-0.167208 0.0647759 0.0465706 -0.974564 0.0200239 -0.223211
-0.168426 0.0649629 0.0373938 -0.951489 0.0259181 -0.306588
-0.169063 0.0651256 0.0278602 -0.908162 0.0422887 -0.416479
-0.167386 0.0625309 0.021099 -0.864311 0.0563356 -0.499793
-0.165031 0.0592451 0.0159702 -0.812152 0.0458185 -0.581645
-0.162899 0.0559468 0.0111714 -0.775078 0.0645686 -0.628558
-0.159541 0.0517576 0.00713703 -0.71545 0.0858331 -0.693372
-0.155756 0.0471625 0.00332859 -0.667787 0.0493426 -0.742716
-0.150136 0.0412452 -0.000204593 -0.595419 0.0153244 -0.803269
-0.144675 0.0356663 -0.00425044 -0.519601 0.0075332 -0.854376
-0.138982 0.0300012 -0.0082444 -0.429752 -0.0170447 -0.902786
-0.131938 0.0230981 -0.0110896 -0.384617 -0.0465814 -0.9219
-0.12332 0.0147691 -0.0124437 -0.318547 -0.0746304 -0.944964
-0.113317 0.00530525 -0.0127202 -0.216997 -0.0729281 -0.973444
-0.103189 -0.00441204 -0.0125975 -0.156073 -0.0766988 -0.984763
-0.0922942 -0.0144907 -0.0121687 -0.0943301 -0.00110913 -0.99554
-0.0817103 -0.0243691 -0.0118092 -0.00581908 0.0123474 -0.999907
-0.0724466 -0.0328644 -0.0128229 0.0566775 0.0411267 -0.997545
-0.0644261 -0.0406227 -0.0144137 0.0834672 0.0627317 -0.994534
-0.0541731 -0.0504566 -0.0137995 0.09537 0.0839191 -0.991898
-0.0452354 -0.0590082 -0.0145951 0.0670067 0.111314 -0.991524
-0.0363269 -0.0675109 -0.0153381 0.0532364 0.129718 -0.990121
-0.0296479 -0.0739524 -0.0182752 0.0542086 0.13772 -0.988987
-0.0200908 -0.0830671 -0.018313 0.0270301 0.135112 -0.990462
-0.010455 -0.0922758 -0.0183253 0.0141837 0.130869 -0.991298
0.000598252 -0.102823 -0.0168687 -0.0106931 0.135612 -0.990704
0.00818145 -0.110084 -0.0189838 0.00238219 0.158943 -0.987285
0.0169455 -0.118405 -0.0197527 0.00754176 0.17598 -0.984365
0.0254552 -0.126225 -0.0212177 0.0324648 0.103742 -0.994074
0.0378814 -0.137648 -0.017634 0.0788283 -0.0488311 -0.995692
0.0416983 -0.141092 -0.0223826 0.0795762 -0.107996 -0.990961
0.0377841 -0.13696 -0.0342855 0.0776882 -0.0937619 -0.992559
0.0340014 -0.13307 -0.0468841 0.0836083 -0.0203267 -0.996291
-0.208998 0.149163 0.280527 -0.398489 -0.264761 -0.878128
-0.210833 0.149736 0.270968 -0.463143 -0.25923 -0.847525
-0.211328 0.149082 0.263616 -0.529194 -0.240912 -0.813582
-0.211359 0.148437 0.255652 -0.649626 -0.212643 -0.72991
-0.211597 0.147639 0.247619 -0.778776 -0.151525 -0.608727
-0.209593 0.145208 0.240368 -0.874278 -0.0866806 -0.477624
-0.210166 0.144424 0.23272 -0.883571 -0.0622204 -0.464146
-0.211435 0.144367 0.224843 -0.877593 0.0238403 -0.478813
-0.212715 0.143982 0.218525 -0.883724 0.155517 -0.441414
-0.211687 0.142307 0.212098 -0.770438 0.327327 -0.547067
-0.212288 0.141378 0.207564 -0.655504 0.249855 -0.712662
-0.212299 0.14038 0.202244 -0.556701 0.234312 -0.796983
-0.210709 0.137509 0.198801 -0.550238 0.226837 -0.803606
-0.207616 0.134125 0.193281 -0.587662 0.182901 -0.788163
-0.207827 0.132479 0.190654 -0.620721 0.147456 -0.77004
-0.207773 0.130739 0.188108 -0.661476 0.17186 -0.730009
-0.207785 0.128094 0.190958 -0.658198 0.185568 -0.729617
-0.205752 0.124561 0.191229 -0.719603 0.201026 -0.664651
-0.2041 0.120438 0.196337 -0.748269 0.240054 -0.618439
-0.201969 0.11728 0.196043 -0.783348 0.264107 -0.562684
-0.199609 0.114291 0.195786 -0.861338 0.244469 -0.445345
-0.197432 0.111847 0.190425 -0.879903 0.224303 -0.418878
-0.196196 0.110139 0.186401 -0.902691 0.227209 -0.365411
-0.194677 0.108226 0.181371 -0.92331 0.216778 -0.317026
-0.193448 0.106506 0.1769 -0.933198 0.197828 -0.300009
-0.192067 0.104745 0.170722 -0.935417 0.201253 -0.290675
-0.191445 0.103727 0.163981 -0.96123 0.193804 -0.196156
-0.189853 0.10195 0.15686 -0.968401 0.186167 -0.165956
-0.188501 0.100407 0.149808 -0.967675 0.179798 -0.176853
-0.186001 0.0979214 0.142994 -0.967796 0.15487 -0.198457
-0.183101 0.0952188 0.136909 -0.968637 0.132572 -0.210158
-0.179952 0.0922921 0.130802 -0.968852 0.104333 -0.224591
-0.177446 0.0898314 0.125101 -0.966041 0.0902248 -0.242126
-0.174928 0.0873073 0.119298 -0.963104 0.0880578 -0.254315
-0.172596 0.0850497 0.113374 -0.96797 0.0645349 -0.242629
-0.170993 0.0835151 0.106136 -0.969233 0.0543945 -0.240061
-0.170432 0.0824258 0.0986676 -0.977463 0.032492 -0.208591
-0.16783 0.0796313 0.0925192 -0.983412 0.0542721 -0.173075
-0.165329 0.0766797 0.0860795 -0.98993 0.0447084 -0.134316
-0.160799 0.0718671 0.081442 -0.992558 0.0268125 -0.118785
-0.158551 0.0689628 0.0749589 -0.990951 0.028089 -0.131255
-0.160125 0.0700501 0.0649478 -0.988306 0.0218776 -0.150905
-0.163421 0.072286 0.0537691 -0.980342 0.0381909 -0.193572
-0.164048 0.0721006 0.0452277 -0.964277 0.029855 -0.263209
-0.165296 0.0723062 0.0360761 -0.939005 0.0281678 -0.342749
-0.165605 0.0721342 0.0269112 -0.893233 0.0274549 -0.448755
-0.162829 0.0685475 0.021401 -0.850254 0.0319242 -0.525404
-0.160875 0.0655739 0.0160702 -0.796698 0.0596985 -0.601422
-0.158351 0.0619516 0.0115836 -0.744586 0.0747173 -0.663332
-0.154603 0.0574864 0.00766608 -0.681204 0.0552053 -0.730009
-0.150734 0.0529587 0.00317067 -0.637023 0.0542479 -0.768934
-0.144616 0.0467067 -0.000123858 -0.54932 0.015105 -0.835476
-0.13913 0.0411047 -0.00414112 -0.460176 0.0100245 -0.887771
-0.133445 0.0354504 -0.00814041 -0.391953 -0.0107365 -0.919922
-0.126339 0.0284802 -0.0109094 -0.331229 -0.026835 -0.943169
-0.117563 0.0199849 -0.0120896 -0.260543 -0.0700428 -0.962918
-0.106995 0.00994925 -0.0117882 -0.198036 -0.0845778 -0.976539
-0.0966771 2.52798e-05 -0.011469 -0.0782555 -0.0369614 -0.996248
-0.0853827 -0.0104786 -0.0106369 -0.0129281 0.0129954 -0.999832
-0.0744529 -0.0207222 -0.00993636 0.0314987 -0.00792481 -0.999472
-0.0649444 -0.0294595 -0.0107461 0.0736304 0.0227406 -0.997026
-0.0568103 -0.0373291 -0.0122316 0.0941233 0.0489478 -0.994357
-0.0465353 -0.0471919 -0.0115993 0.0720565 0.0734118 -0.994695
-0.037636 -0.0557104 -0.0124263 0.0488397 0.101036 -0.993683
-0.0287584 -0.0641963 -0.0131792 0.0296855 0.117756 -0.992599
-0.0220391 -0.0706939 -0.0160644 0.0328818 0.12888 -0.991115
-0.0124508 -0.0798612 -0.0160565 0.0189169 0.155273 -0.98769
-0.00280708 -0.0890909 -0.0160479 0.0132128 0.146262 -0.989158
0.00825256 -0.0996505 -0.0145383 -0.0224431 0.128477 -0.991458
0.0159068 -0.106977 -0.0165596 -0.00297319 0.138825 -0.990313
0.0252368 -0.115811 -0.0168132 0.00146528 0.161574 -0.986859
0.0340976 -0.12395 -0.0179779 0.0539941 0.0972829 -0.993791
0.0464194 -0.135223 -0.0149184 0.0896714 -0.0404892 -0.995148
0.0502511 -0.138659 -0.0197158 0.09781 -0.108264 -0.989299
0.0472311 -0.135356 -0.0307045 0.106493 -0.0403942 -0.993493
0.0430995 -0.131104 -0.0435874 0.0853647 0.0465737 -0.995261
-0.208676 0.15806 0.27848 -0.309271 -0.233198 -0.921938
-0.210753 0.158859 0.268778 -0.42205 -0.233615 -0.875955
-0.211286 0.158238 0.261514 -0.524009 -0.211458 -0.825045
-0.210761 0.157073 0.254188 -0.627251 -0.212481 -0.749271
-0.210867 0.156305 0.246218 -0.791163 -0.142199 -0.594845
-0.209082 0.154024 0.239006 -0.863566 -0.0714473 -0.499148
-0.210108 0.153482 0.231781 -0.866498 -0.0668792 -0.49468
-0.21191 0.153753 0.224115 -0.846377 -0.0732507 -0.527523
-0.214146 0.154009 0.217866 -0.876403 -0.0720197 -0.476162
-0.213009 0.152155 0.211899 -0.856547 0.148962 -0.494103
-0.213926 0.151368 0.207631 -0.576452 0.351523 -0.737655
-0.214017 0.15045 0.202283 -0.444493 0.265541 -0.855519
-0.212152 0.147471 0.198841 -0.437381 0.258279 -0.861388
-0.209254 0.144284 0.193102 -0.500176 0.239495 -0.832146
-0.209702 0.142823 0.191048 -0.505359 0.180983 -0.843717
-0.209353 0.140696 0.189728 -0.549645 0.20432 -0.810027
-0.208981 0.137604 0.194319 -0.556303 0.186428 -0.809797
-0.206302 0.133427 0.195845 -0.591731 0.189915 -0.783445
-0.204039 0.12987 0.200209 -0.680229 0.248026 -0.689762
-0.20175 0.126842 0.199602 -0.716226 0.258127 -0.648375
-0.199212 0.123666 0.199245 -0.82181 0.25882 -0.507582
-0.196934 0.121134 0.193643 -0.886741 0.244839 -0.392103
-0.195728 0.119472 0.188532 -0.905834 0.227723 -0.357222
-0.194258 0.117636 0.182423 -0.923196 0.213358 -0.319668
-0.193816 0.116752 0.175372 -0.937378 0.173008 -0.302308
-0.192808 0.115411 0.16797 -0.950736 0.175665 -0.255426
-0.191982 0.114305 0.160557 -0.961526 0.20056 -0.187731
-0.190087 0.112303 0.153343 -0.97354 0.176297 -0.145392
-0.187592 0.109809 0.146736 -0.972723 0.177922 -0.148839
-0.184784 0.107008 0.140164 -0.970064 0.16543 -0.177786
-0.181964 0.104343 0.133936 -0.966045 0.15358 -0.207774
-0.179058 0.101613 0.127577 -0.969867 0.12991 -0.206111
-0.177097 0.0996315 0.121245 -0.96252 0.121912 -0.242267
-0.175542 0.098027 0.114199 -0.965433 0.110267 -0.236177
-0.173541 0.096103 0.107915 -0.965689 0.0914369 -0.243071
-0.172411 0.0950007 0.100446 -0.971272 0.0964235 -0.217564
-0.170267 0.0925119 0.0950436 -0.97871 0.0977458 -0.180481
-0.16776 0.0897935 0.0889101 -0.984096 0.081837 -0.157661
-0.164772 0.0863973 0.0829706 -0.98829 0.0815407 -0.128972
-0.16098 0.0822885 0.0776001 -0.989338 0.069428 -0.128021
-0.15876 0.0794329 0.070947 -0.98973 0.0631919 -0.128225
-0.160653 0.0808271 0.0605051 -0.985896 0.0523062 -0.158974
-0.163988 0.0830434 0.0491295 -0.972407 0.0348771 -0.230669
-0.165119 0.0833626 0.0399481 -0.945711 0.0218244 -0.324274
-0.166122 0.0834282 0.0310304 -0.911368 0.0263376 -0.410749
-0.165786 0.0827248 0.0226934 -0.860166 0.036672 -0.508694
-0.164475 0.0803977 0.0162356 -0.797168 0.0275951 -0.603127
-0.162013 0.0769914 0.011281 -0.760563 0.0403183 -0.648012
-0.159032 0.072961 0.0070788 -0.717173 0.0604533 -0.694268
-0.154646 0.0681386 0.00307491 -0.66839 0.0667828 -0.740807
-0.149807 0.0629168 -0.00124377 -0.603145 0.0797737 -0.793632
-0.143395 0.0563619 -0.00422996 -0.52077 0.054649 -0.851946
-0.137633 0.0504719 -0.00795773 -0.435689 0.0458078 -0.898931
-0.131848 0.0447191 -0.0118545 -0.372175 0.0204635 -0.927937
-0.124501 0.0375022 -0.0143673 -0.303327 -0.006051 -0.952867
-0.115122 0.0284083 -0.0149243 -0.243575 -0.0104867 -0.969825
-0.103564 0.0173801 -0.0136119 -0.148638 -0.0663997 -0.98666
-0.0930026 0.00718945 -0.0130316 -0.0238398 -0.0347787 -0.999111
-0.0811294 -0.00392143 -0.0116035 0.00427134 -0.0209824 -0.999771
-0.069735 -0.014651 -0.0104399 0.0499652 0.00341427 -0.998745
-0.059763 -0.023889 -0.0107909 0.0982965 0.00918463 -0.995115
-0.0516267 -0.0317745 -0.0123 0.0815925 0.0365219 -0.995996
-0.0412037 -0.0418023 -0.0115426 0.0719749 0.0891346 -0.993416
-0.0322267 -0.0503991 -0.012271 0.0537864 0.106254 -0.992883
-0.0231999 -0.0590485 -0.0128269 0.0343347 0.124445 -0.991632
-0.0163651 -0.0656872 -0.0155797 0.0292981 0.129769 -0.991111
-0.00673831 -0.0749366 -0.0155174 0.0100886 0.145223 -0.989348
0.002976 -0.0842727 -0.0154322 0.0081968 0.157877 -0.987425
0.0143728 -0.095193 -0.0135826 -0.0244055 0.13825 -0.990097
0.0224708 -0.102956 -0.0151416 -0.0125041 0.131698 -0.991211
0.0333796 -0.113146 -0.0141332 0.0247933 0.113594 -0.993218
0.0430557 -0.12203 -0.0145923 0.0450066 0.0585062 -0.997272
0.0545306 -0.132515 -0.0127022 0.106887 -0.0520698 -0.992907
0.0608547 -0.138237 -0.0153211 0.101921 -0.116767 -0.987916
0.0598564 -0.136824 -0.0242619 0.087043 -0.093729 -0.991785
0.0554155 -0.132241 -0.0373085 0.0967599 0.0295681 -0.994868
-0.208562 0.167255 0.275814 -0.239957 -0.244481 -0.939494
-0.210891 0.168311 0.265855 -0.38525 -0.237401 -0.891753
-0.211506 0.167742 0.258639 -0.491242 -0.193109 -0.849347
-0.210394 0.165998 0.251995 -0.679235 -0.0975514 -0.727408
-0.210029 0.164868 0.244564 -0.828511 -0.0533044 -0.557429
-0.208512 0.162756 0.237394 -0.857721 -0.0386107 -0.512664
-0.210178 0.162637 0.230275 -0.838566 -0.000507977 -0.5448
-0.212213 0.163013 0.222816 -0.836275 -0.0533409 -0.54571
-0.214351 0.163041 0.217223 -0.860429 -0.0430442 -0.50775
-0.213201 0.161134 0.211459 -0.790187 -0.0521401 -0.610644
-0.214127 0.160455 0.207154 -0.523013 0.161096 -0.836962
-0.213771 0.159295 0.201844 -0.098561 0.324754 -0.940649
-0.212069 0.156532 0.198183 -0.320449 0.216817 -0.922119
-0.209352 0.153417 0.192393 -0.434343 0.244813 -0.866841
-0.209567 0.15186 0.191121 -0.453713 0.272776 -0.848374
-0.208277 0.148877 0.191376 -0.488261 0.233245 -0.840951
-0.207402 0.145415 0.197131 -0.485041 0.238481 -0.841345
-0.204579 0.141763 0.198063 -0.596396 0.241148 -0.765611
-0.202678 0.138526 0.202243 -0.652297 0.262872 -0.71092
-0.200462 0.13554 0.201487 -0.72137 0.245003 -0.647765
-0.197878 0.132297 0.200906 -0.800762 0.244608 -0.546761
-0.195649 0.129816 0.194989 -0.918451 0.201894 -0.340126
-0.194724 0.128451 0.188553 -0.918766 0.210464 -0.334026
-0.193781 0.127175 0.180905 -0.939789 0.186568 -0.286337
-0.193328 0.126381 0.173001 -0.947118 0.191234 -0.257676
-0.192109 0.124914 0.16542 -0.955996 0.173321 -0.236711
-0.190496 0.123213 0.158115 -0.968828 0.174478 -0.175869
-0.188098 0.120814 0.151074 -0.971081 0.176328 -0.160967
-0.185577 0.118308 0.144376 -0.971392 0.180525 -0.154297
-0.182801 0.11553 0.13775 -0.972156 0.1687 -0.162644
-0.17999 0.112829 0.131492 -0.969483 0.155517 -0.189518
-0.177133 0.110092 0.125116 -0.966201 0.160759 -0.201523
-0.175449 0.108355 0.118475 -0.963431 0.138455 -0.229415
-0.174022 0.10687 0.111266 -0.964923 0.127323 -0.229592
-0.173614 0.10639 0.103548 -0.968805 0.102289 -0.225731
-0.17357 0.106262 0.0950035 -0.979884 0.0943131 -0.175873
-0.170938 0.103301 0.0900928 -0.979048 0.110783 -0.170858
-0.168618 0.100762 0.0837353 -0.98369 0.125616 -0.128743
-0.164625 0.0964565 0.079403 -0.982704 0.149593 -0.109151
-0.161106 0.0925867 0.0740685 -0.986024 0.119822 -0.115751
-0.157981 0.0889157 0.0682791 -0.984656 0.11046 -0.135097
-0.159499 0.089938 0.0582111 -0.980685 0.0883554 -0.174503
-0.163014 0.0923054 0.0465362 -0.963948 0.0807152 -0.253555
-0.163912 0.0924544 0.0376299 -0.937732 0.0239674 -0.346531
-0.164591 0.0923407 0.0289934 -0.903746 0.0253863 -0.427316
-0.165288 0.0925817 0.0199372 -0.844302 0.00787202 -0.535811
-0.164406 0.0907536 0.0130093 -0.777772 -0.00125696 -0.628545
-0.161358 0.0868856 0.0083296 -0.736205 0.00831554 -0.676708
-0.157813 0.082509 0.00404122 -0.694985 0.0193769 -0.718763
-0.153353 0.0778217 -0.000871718 -0.640888 0.0422614 -0.76647
-0.148549 0.0726179 -0.00539282 -0.597772 0.0731874 -0.798319
-0.141899 0.0658116 -0.00813153 -0.505352 0.0536931 -0.861241
-0.135864 0.0596313 -0.0115711 -0.42436 0.0960548 -0.900384
-0.129982 0.0537785 -0.0153661 -0.377106 0.0726489 -0.923316
-0.122419 0.0463412 -0.0176437 -0.263697 0.026544 -0.96424
-0.112206 0.0364396 -0.017362 -0.202283 0.00122973 -0.979326
-0.10023 0.0249829 -0.0156015 -0.0644115 -0.0240287 -0.997634
-0.0894556 0.0145698 -0.0147961 0.0504405 -0.00248628 -0.998724
-0.0771507 0.0030212 -0.0129367 0.0302801 0.0167173 -0.999402
-0.0653855 -0.00808172 -0.0114122 0.0735154 0.000434561 -0.997294
-0.0546538 -0.0181588 -0.010924 0.102185 0.00675391 -0.994742
-0.0465379 -0.0260422 -0.0124749 0.103461 0.0186322 -0.994459
-0.036149 -0.0360578 -0.0117632 0.0623233 0.0531786 -0.996638
-0.0271498 -0.0446767 -0.0124517 0.0304769 0.0783342 -0.996461
-0.0180034 -0.0534543 -0.0128457 0.0261313 0.107925 -0.993816
-0.0109974 -0.0602796 -0.0154172 0.00206692 0.107571 -0.994195
-0.00108838 -0.069842 -0.0150512 0.00722085 0.125151 -0.992111
0.00886965 -0.0794506 -0.0147128 -0.00479936 0.133806 -0.990996
0.0206877 -0.0908179 -0.0124202 -0.00564268 0.132148 -0.991214
0.0292431 -0.0990206 -0.0135237 -0.00313619 0.122577 -0.992454
0.0413788 -0.11031 -0.0114744 0.0201596 0.135489 -0.990574
0.0518133 -0.119897 -0.0112567 0.0602955 0.0528847 -0.996779
0.0630671 -0.130186 -0.00979218 0.109063 -0.0616349 -0.992122
0.0705975 -0.136982 -0.0114407 0.142757 -0.148492 -0.978555
0.0709613 -0.136824 -0.0190375 0.134249 -0.126924 -0.982786
0.0664166 -0.132124 -0.0322034 0.10622 0.0520446 -0.99298
-0.208436 0.176232 0.273234 -0.0968439 -0.332749 -0.938029
-0.211151 0.177614 0.263234 0.0856696 -0.409456 -0.908299
-0.212096 0.177292 0.256399 -0.678478 0.537172 0.501113
-0.210556 0.175266 0.250313 -0.921301 0.314819 -0.22824
-0.210361 0.174232 0.243238 -0.880135 0.150672 -0.450177
-0.209185 0.172336 0.236208 -0.835347 0.0360258 -0.548542
-0.211198 0.172313 0.229731 -0.829459 0.0735903 -0.553699
-0.213159 0.17252 0.222874 -0.797711 -0.133223 -0.58814
-0.215411 0.172841 0.217368 -0.783856 -0.260952 -0.563448
-0.214208 0.170898 0.211742 -0.651802 -0.211173 -0.728396
-0.214877 0.17031 0.207154 -0.137562 -0.267792 -0.953606
-0.213963 0.168599 0.202382 -0.104065 -0.0109286 -0.99451
-0.212585 0.166255 0.198263 -0.148979 0.210862 -0.966097
-0.209891 0.163238 0.19229 -0.235885 0.338114 -0.911064
-0.209272 0.160914 0.19251 -0.293721 0.350296 -0.889394
-0.207851 0.157761 0.193654 -0.308791 0.310541 -0.899006
-0.206361 0.1545 0.199414 -0.465637 0.3011 -0.832179
-0.203754 0.151049 0.200185 -0.531085 0.293249 -0.794955
-0.201606 0.147566 0.204115 -0.683422 0.208038 -0.699753
-0.199204 0.144419 0.203109 -0.693204 0.258273 -0.672877
-0.196639 0.141184 0.20177 -0.725512 0.267776 -0.633979
-0.194947 0.139245 0.194463 -0.833737 0.309407 -0.457328
-0.194475 0.138407 0.186204 -0.884044 0.336422 -0.324478
-0.192954 0.13668 0.178638 -0.903586 0.311112 -0.29452
-0.192069 0.135547 0.17064 -0.930824 0.277344 -0.238007
-0.190563 0.133872 0.162981 -0.950734 0.245469 -0.189342
-0.189109 0.132255 0.155442 -0.965174 0.225348 -0.132884
-0.186965 0.13001 0.148229 -0.972669 0.199889 -0.118151
-0.184422 0.127468 0.141483 -0.979571 0.154029 -0.129286
-0.181722 0.124749 0.134781 -0.97474 0.154988 -0.160815
-0.1791 0.122194 0.128296 -0.974065 0.143471 -0.174968
-0.176545 0.119715 0.12162 -0.973411 0.118595 -0.195974
-0.175008 0.118067 0.114781 -0.972828 0.115012 -0.200944
-0.174043 0.116984 0.107094 -0.970713 0.111376 -0.212865
-0.174058 0.116824 0.0990865 -0.973659 0.0955459 -0.207024
-0.174007 0.116597 0.0905928 -0.981534 0.0843445 -0.17169
-0.173439 0.115622 0.0833453 -0.98633 0.0992931 -0.131509
-0.171851 0.113793 0.0763182 -0.987678 0.121356 -0.0988222
-0.167751 0.10948 0.0721253 -0.986356 0.144474 -0.0789233
-0.163621 0.105116 0.0678686 -0.982307 0.160974 -0.0957133
-0.159434 0.100566 0.0641236 -0.982087 0.152487 -0.110694
-0.160867 0.101391 0.0544344 -0.976743 0.130392 -0.170207
-0.161788 0.101458 0.0453338 -0.962781 0.0909021 -0.254539
-0.163089 0.101984 0.0360718 -0.93452 0.0592504 -0.350945
-0.164869 0.10299 0.0260707 -0.87611 0.0172901 -0.481801
-0.165939 0.103631 0.0166073 -0.819998 -0.0106048 -0.572269
-0.165963 0.102904 0.00820026 -0.753181 -0.0316792 -0.65705
-0.162431 0.0987701 0.00321195 -0.720048 -0.0248664 -0.693479
-0.15837 0.0941349 -0.00184223 -0.684663 -0.0206772 -0.728567
